x,y,z,intensity
0.61019,3.529,-0.93754,21
0.65852,3.8085,-0.91578,29
0.2288,1.3029,-0.78452,22
0.24699,1.4065,-0.80236,23
0.26175,1.4906,-0.80467,27
0.2779,1.5825,-0.80703,23
0.30047,1.711,-0.82229,30
0.32929,1.8751,-0.84764,25
0.36388,2.0721,-0.87876,21
0.39666,2.2588,-0.89553,28
0.4333,2.4675,-0.91183,21
0.46896,2.6705,-0.91617,19
0.5125,2.9184,-0.9246,29
0.56728,3.2304,-0.94047,30
0.61842,3.5216,-0.93602,23
0.66445,3.7837,-0.91025,24
0.23539,1.3175,-0.7937,24
0.25116,1.4058,-0.80236,23
0.26462,1.4811,-0.79998,27
0.28322,1.5852,-0.80883,24
0.30872,1.7279,-0.83085,23
0.33131,1.8544,-0.83869,26
0.3736,2.091,-0.88724,22
0.40565,2.2704,-0.90062,25
0.43996,2.4625,-0.91046,21
0.48022,2.6878,-0.92258,21
0.52485,2.9376,-0.93116,33
0.57855,3.2382,-0.94323,28
0.6241,3.4931,-0.92893,25
0.68149,3.8143,-0.91809,20
0.24076,1.3235,-0.79778,24
0.25402,1.3964,-0.79746,23
0.26833,1.475,-0.79716,24
0.28692,1.5772,-0.80524,20
0.31318,1.7216,-0.82828,26
0.3391,1.8641,-0.84357,25
0.36861,2.0263,-0.86026,20
0.41512,2.282,-0.90571,25
0.45039,2.4759,-0.91593,17
0.48764,2.6807,-0.92066,22
0.53134,2.9209,-0.92639,35
0.58769,3.2307,-0.94158,33
0.63542,3.493,-0.92943,23
0.69487,3.8198,-0.91993,24
0.24204,1.311,-0.79064,29
0.25736,1.394,-0.79648,23
0.27475,1.4882,-0.80467,23
0.29137,1.5782,-0.80614,19
0.31769,1.7208,-0.82828,24
0.34862,1.8884,-0.85496,25
0.38597,2.0907,-0.88801,22
0.42075,2.2791,-0.90498,28
0.45823,2.4821,-0.91867,18
0.49466,2.6794,-0.92066,22
0.53899,2.9195,-0.92639,29
0.59719,3.2348,-0.94323,36
0.64527,3.4952,-0.93045,25
0.70062,3.795,-0.9144,27
0.24457,1.3018,-0.78554,31
0.26077,1.3881,-0.79354,21
0.28106,1.496,-0.80937,29
0.29633,1.5773,-0.80614,21
0.32576,1.734,-0.83513,23
0.35455,1.8873,-0.85496,26
0.39322,2.0931,-0.88956,29
0.42722,2.2741,-0.90353,33
0.46603,2.4806,-0.91867,18
0.50307,2.6778,-0.92066,22
0.54886,2.9215,-0.92758,33
0.60487,3.2197,-0.93937,36
0.65732,3.4988,-0.93197,25
0.70644,3.7603,-0.90656,27
0.24691,1.2944,-0.78146,33
0.26759,1.4027,-0.80236,20
0.28556,1.497,-0.81031,26
0.30442,1.5958,-0.81601,21
0.33331,1.7473,-0.84197,22
0.35982,1.8863,-0.85496,26
0.3963,2.0775,-0.88339,21
0.43357,2.2729,-0.90353,28
0.47647,2.4978,-0.92551,19
0.51268,2.6876,-0.9245,21
0.55416,2.905,-0.92282,33
0.61134,3.2047,-0.93551,28
0.66201,3.4704,-0.92487,28
0.71292,3.7373,-0.90149,20
0.25085,1.2954,-0.78248,31
0.2715,1.402,-0.80236,21
0.28471,1.4702,-0.79622,24
0.30683,1.5844,-0.81063,23
0.33819,1.7463,-0.84197,26
0.36266,1.8727,-0.84927,28
0.4021,2.0763,-0.88339,21
0.43744,2.2588,-0.89844,30
0.48523,2.5057,-0.92893,21
0.52018,2.6861,-0.9245,18
0.56481,2.9165,-0.92699,29
0.62028,3.203,-0.93551,28
0.67427,3.4818,-0.92842,23
0.72521,3.7448,-0.90379,21
0.25625,1.3013,-0.78656,28
0.27793,1.4114,-0.80823,22
0.29069,1.4762,-0.79998,22
0.31284,1.5887,-0.81332,23
0.34158,1.7346,-0.83684,23
0.36995,1.8787,-0.85252,28
0.40612,2.0624,-0.87799,21
0.44309,2.2501,-0.89553,28
0.48548,2.4654,-0.91456,21
0.52716,2.677,-0.92194,22
0.56733,2.881,-0.91626,35
0.62997,3.1992,-0.93496,28
0.68633,3.4854,-0.92994,25
0.7411,3.7635,-0.90886,20
0.26404,1.3226,-0.79983,31
0.27684,1.3867,-0.79452,23
0.29248,1.465,-0.79435,23
0.3156,1.5809,-0.80973,23
0.34293,1.7178,-0.82914,21
0.37773,1.8921,-0.85903,25
0.40971,2.0523,-0.87414,19
0.45081,2.2581,-0.89916,25
0.47979,2.4033,-0.89199,18
0.53824,2.6961,-0.92898,21
0.56739,2.8421,-0.90435,29
0.63721,3.1918,-0.93331,33
0.69772,3.4949,-0.93298,23
0.7479,3.7463,-0.90518,20
0.26591,1.3117,-0.7937,36
0.28026,1.3825,-0.79256,22
0.29752,1.4676,-0.79622,24
0.32065,1.5817,-0.81063,22
0.35018,1.7274,-0.83427,19
0.37935,1.8712,-0.85008,25
0.41837,2.0637,-0.87954,18
0.45565,2.2476,-0.89553,24
0.49625,2.4479,-0.90909,18
0.55,2.713,-0.93538,19
0.58455,2.8834,-0.91805,29
0.64974,3.205,-0.93772,33
0.70232,3.4644,-0.92538,25
0.75438,3.7212,-0.89964,24
0.26668,1.2957,-0.78452,38
0.28647,1.3919,-0.79844,22
0.3033,1.4737,-0.79998,24
0.32606,1.5842,-0.81242,24
0.35786,1.7387,-0.84026,22
0.38527,1.8719,-0.85089,19
0.42858,2.0823,-0.88801,22
0.45819,2.2262,-0.88752,26
0.50086,2.4335,-0.9043,17
0.55652,2.704,-0.93282,22
0.59156,2.8742,-0.91567,42
0.65498,3.1824,-0.93165,33
0.71572,3.4775,-0.92943,21
0.75992,3.6922,-0.89319,21
0.27158,1.3,-0.78758,38
0.29167,1.3961,-0.80138,21
0.30803,1.4745,-0.80092,24
0.33003,1.5797,-0.81063,22
0.36376,1.7412,-0.84197,23
0.39157,1.8743,-0.85252,19
0.42872,2.0522,-0.87568,21
0.46632,2.2321,-0.89043,24
0.51077,2.4449,-0.90909,16
0.56144,2.6875,-0.9277,21
0.59774,2.8612,-0.91209,33
0.66757,3.1955,-0.93606,30
0.71456,3.4204,-0.91474,23
0.79197,3.7909,-0.91763,21
0.27734,1.3093,-0.7937,33
0.29774,1.4056,-0.80725,22
0.31288,1.4771,-0.8028,24
0.33999,1.605,-0.82409,21
0.36712,1.7331,-0.83855,24
0.39339,1.8571,-0.8452,18
0.43368,2.0473,-0.87414,32
0.47293,2.2326,-0.89116,26
0.52149,2.4619,-0.91593,16
0.56816,2.6822,-0.92642,24
0.61246,2.8913,-0.92222,35
0.67928,3.2067,-0.93992,28
0.73173,3.4544,-0.92437,21
0.79005,3.7297,-0.90333,34
0.28303,1.3169,-0.79881,33
0.3019,1.4047,-0.80725,22
0.31689,1.4744,-0.80186,24
0.344,1.6005,-0.8223,23
0.36998,1.7214,-0.83342,26
0.40005,1.8613,-0.84764,21
0.43976,2.046,-0.87414,32
0.47916,2.2294,-0.89043,30
0.52721,2.453,-0.91319,18
0.57492,2.6749,-0.9245,19
0.61822,2.8764,-0.91805,27
0.68879,3.2047,-0.93992,28
0.7436,3.4597,-0.92639,21
0.78353,3.6455,-0.8835,27
0.28904,1.3279,-0.80595,31
0.3041,1.3971,-0.80334,24
0.32225,1.4805,-0.80561,24
0.34667,1.5926,-0.8187,23
0.37449,1.7204,-0.83342,24
0.40648,1.8674,-0.85089,25
0.43805,2.0124,-0.86026,24
0.48738,2.2391,-0.8948,26
0.52964,2.4332,-0.90635,17
0.57951,2.6623,-0.92066,19
0.62778,2.8841,-0.92103,35
0.69758,3.2048,-0.94047,33
0.74401,3.4181,-0.91576,21
0.803,3.6891,-0.89457,29
0.29321,1.327,-0.80595,31
0.30886,1.3978,-0.80432,24
0.32881,1.4881,-0.81031,24
0.34974,1.5828,-0.81422,22
0.38184,1.7281,-0.83769,28
0.41274,1.8679,-0.85171,25
0.44914,2.0327,-0.86951,24
0.49923,2.2593,-0.90353,21
0.53282,2.4113,-0.89883,17
0.58705,2.6568,-0.91938,19
0.62942,2.8486,-0.91031,29
0.70516,3.1913,-0.93717,33
0.74181,3.3572,-0.90006,28
0.82214,3.7207,-0.90287,34
0.2964,1.3227,-0.80391,29
0.31224,1.3935,-0.80236,23
0.33168,1.4802,-0.80655,22
0.35366,1.5783,-0.81242,21
0.38696,1.7269,-0.83769,26
0.41548,1.8542,-0.84601,26
0.44952,2.0061,-0.85872,22
0.50797,2.2669,-0.90717,23
0.53709,2.3969,-0.89404,16
0.5912,2.6384,-0.91361,19
0.63161,2.8187,-0.90137,33
0.71378,3.1855,-0.93606,33
0.77038,3.438,-0.92234,23
0.85361,3.8094,-0.925,20
0.29605,1.3052,-0.7937,23
0.31666,1.3961,-0.80432,24
0.33672,1.4845,-0.80937,26
0.3566,1.5721,-0.80973,20
0.39308,1.733,-0.84112,28
0.4171,1.8388,-0.8395,25
0.4662,2.0553,-0.88031,27
0.51473,2.2692,-0.90862,26
0.54253,2.3918,-0.89267,17
0.60188,2.6535,-0.91938,18
0.6411,2.8264,-0.90435,29
0.72085,3.1779,-0.93441,28
0.77039,3.3964,-0.91171,23
0.86272,3.8034,-0.92408,21
0.29684,1.2909,-0.78554,27
0.32237,1.4019,-0.80823,22
0.33836,1.4714,-0.8028,26
0.36006,1.5658,-0.80703,20
0.3962,1.723,-0.83684,26
0.4246,1.8465,-0.84357,21
0.46527,2.0234,-0.8672,27
0.51812,2.2532,-0.9028,24
0.54879,2.3866,-0.8913,17
0.6123,2.6627,-0.92322,17
0.65333,2.8412,-0.90971,29
0.72812,3.1664,-0.93165,26
0.77873,3.3865,-0.90968,28
0.8692,3.78,-0.91901,29
0.30575,1.3118,-0.79881,29
0.32573,1.3975,-0.80628,23
0.33951,1.4567,-0.79528,24
0.36349,1.5595,-0.80434,23
0.40295,1.7288,-0.84026,28
0.42178,1.8096,-0.8273,25
0.46541,1.9968,-0.85641,21
0.52311,2.2444,-0.89989,28
0.55544,2.3831,-0.89062,17
0.6189,2.6554,-0.9213,18
0.66566,2.856,-0.91507,27
0.7314,3.138,-0.92394,36
0.79141,3.3955,-0.91272,23
0.86804,3.7243,-0.9061,24
0.30957,1.3127,-0.79983,36
0.32899,1.395,-0.8053,24
0.34089,1.4455,-0.78965,24
0.36921,1.5655,-0.80793,22
0.40499,1.7172,-0.83513,28
0.42778,1.8139,-0.82974,21
0.47741,2.0243,-0.86874,22
0.52428,2.2231,-0.89189,25
0.5647,2.3944,-0.89541,19
0.62107,2.6335,-0.91425,17
0.67533,2.8635,-0.91805,25
0.74711,3.1679,-0.93331,36
0.7963,3.3765,-0.90816,29
0.87824,3.7239,-0.90656,19
0.31049,1.2983,-0.79166,36
0.33499,1.4007,-0.80921,23
0.34831,1.4564,-0.79622,21
0.37538,1.5696,-0.81063,23
0.40828,1.7072,-0.83085,23
0.439,1.8356,-0.84032,18
0.47389,1.9815,-0.85101,22
0.52996,2.216,-0.88971,24
0.57178,2.3908,-0.89472,17
0.63066,2.637,-0.91617,19
0.68832,2.8781,-0.92341,33
0.75483,3.1562,-0.93055,30
0.8042,3.3627,-0.90512,28
0.87952,3.6776,-0.89595,24
0.31052,1.2806,-0.78146,28
0.33816,1.3946,-0.80628,22
0.35538,1.4656,-0.80186,21
0.38031,1.5684,-0.81063,23
0.41619,1.7164,-0.83598,18
0.44175,1.8218,-0.83462,18
0.48838,2.0141,-0.86566,20
0.53429,2.2034,-0.88534,24
0.57796,2.3835,-0.89267,18
0.63984,2.6387,-0.91746,19
0.69781,2.8778,-0.92401,29
0.767,3.1632,-0.93331,30
0.81613,3.3658,-0.90664,28
0.89061,3.6729,-0.89549,21
0.31365,1.2798,-0.78146,29
0.34115,1.3921,-0.8053,21
0.35938,1.4664,-0.8028,24
0.38371,1.5657,-0.80973,23
0.4135,1.6873,-0.82229,23
0.44968,1.8349,-0.84113,21
0.50033,2.0416,-0.87799,29
0.54322,2.2166,-0.89116,24
0.58378,2.3821,-0.89267,18
0.65079,2.6556,-0.92386,21
0.69847,2.8501,-0.91567,29
0.77565,3.165,-0.93441,24
0.83771,3.4183,-0.92133,21
0.89402,3.6481,-0.88996,19
0.31849,1.2822,-0.7835,27
0.34636,1.3944,-0.80725,22
0.36782,1.4807,-0.81125,26
0.38691,1.5576,-0.80614,22
0.41531,1.6719,-0.81545,23
0.46205,1.8601,-0.85333,21
0.49829,2.006,-0.86335,22
0.54568,2.1968,-0.88389,28
0.59171,2.3821,-0.89336,21
0.6573,2.6461,-0.9213,16
0.70604,2.8423,-0.91388,27
0.78049,3.142,-0.92835,28
0.84704,3.41,-0.91981,25
0.90642,3.649,-0.89088,20
0.33172,1.3197,-0.80697,29
0.34941,1.39,-0.8053,23
0.37324,1.4848,-0.81406,26
0.393,1.5634,-0.80973,22
0.42351,1.6848,-0.82229,26
0.46902,1.8659,-0.85659,25
0.49984,1.9885,-0.85641,20
0.54682,2.1754,-0.87588,26
0.59882,2.3822,-0.89404,22
0.67023,2.6663,-0.92898,18
0.71398,2.8404,-0.91388,29
0.78832,3.1361,-0.92724,26
0.86316,3.4339,-0.9269,25
0.92135,3.6653,-0.89549,19
0.33629,1.3203,-0.80799,36
0.35334,1.3872,-0.80432,20
0.37485,1.4717,-0.80749,26
0.40276,1.5812,-0.8196,21
0.43371,1.7027,-0.8317,26
0.47759,1.875,-0.86147,23
0.50836,1.9958,-0.86026,21
0.56837,2.2314,-0.89916,26
0.60445,2.3731,-0.8913,22
0.68048,2.6716,-0.93154,16
0.72243,2.8363,-0.91328,27
0.78678,3.0889,-0.91401,30
0.86296,3.388,-0.91525,28
0.94247,3.7001,-0.90471,21
0.33674,1.3077,-0.80085,36
0.35784,1.3897,-0.80628,22
0.37782,1.4673,-0.80561,27
0.40645,1.5784,-0.8187,20
0.43681,1.6963,-0.82914,28
0.47657,1.8508,-0.85089,26
0.5145,1.9981,-0.86181,21
0.57467,2.2317,-0.89989,26
0.61253,2.3788,-0.89404,21
0.67566,2.6239,-0.91553,17
0.73318,2.8473,-0.91745,29
0.8126,3.1557,-0.93441,33
0.87279,3.3895,-0.91626,21
0.94487,3.6694,-0.8978,20
0.33998,1.3033,-0.79881,29
0.36088,1.3835,-0.80334,23
0.38243,1.4661,-0.80561,27
0.4096,1.5702,-0.81511,22
0.44168,1.6932,-0.82828,26
0.48423,1.8563,-0.85415,28
0.51659,1.9804,-0.85487,22
0.57839,2.2173,-0.8948,25
0.62048,2.3786,-0.89472,22
0.68916,2.6419,-0.92258,21
0.73489,2.8173,-0.90852,33
0.82106,3.1476,-0.93276,28
0.88149,3.3792,-0.91424,28
0.95885,3.6758,-0.9001,22
0.34646,1.3141,-0.80595,28
0.36406,1.3808,-0.80236,23
0.38267,1.4514,-0.7981,24
0.40961,1.5536,-0.80703,23
0.44749,1.6973,-0.83085,28
0.49048,1.8604,-0.85659,19
0.52318,1.9844,-0.85718,21
0.58277,2.2104,-0.89262,25
0.63341,2.4025,-0.9043,19
0.69559,2.6383,-0.92194,19
0.73789,2.7987,-0.90316,25
0.8141,3.0878,-0.91567,36
0.88984,3.375,-0.91373,28
0.964,3.6564,-0.89595,22
0.34947,1.3097,-0.80391,40
0.36816,1.3798,-0.80236,23
0.38788,1.4537,-0.79998,24
0.41468,1.5541,-0.80793,24
0.4488,1.682,-0.824,37
0.49459,1.8536,-0.85415,23
0.53715,2.0131,-0.87029,19
0.58596,2.196,-0.88752,22
0.63908,2.3951,-0.90225,21
0.70635,2.6472,-0.92578,19
0.75603,2.8334,-0.91507,22
0.83218,3.1188,-0.92559,28
0.89386,3.35,-0.90765,28
0.98488,3.6911,-0.90518,22
0.34999,1.2953,-0.79574,42
0.37112,1.3735,-0.79942,21
0.39107,1.4473,-0.79716,24
0.42143,1.5597,-0.81152,23
0.4522,1.6736,-0.82058,37
0.4985,1.845,-0.85089,25
0.54588,2.0203,-0.87414,27
0.59188,2.1906,-0.88607,25
0.64562,2.3895,-0.90088,22
0.70675,2.6157,-0.91553,22
0.76194,2.82,-0.9115,33
0.84147,3.1143,-0.92504,30
0.90488,3.349,-0.90816,28
0.98328,3.6391,-0.89319,22
0.35384,1.2961,-0.79676,47
0.3761,1.3776,-0.80236,20
0.39857,1.4599,-0.80467,27
0.42645,1.562,-0.81332,23
0.4561,1.6707,-0.81972,24
0.49804,1.8243,-0.84194,25
0.54242,1.9868,-0.86026,22
0.5932,2.1729,-0.87952,26
0.65039,2.3823,-0.89883,24
0.70411,2.5791,-0.90337,17
0.75927,2.7811,-0.89958,35
0.84861,3.1084,-0.92394,33
0.92078,3.3728,-0.91525,23
1.002,3.6703,-0.90149,29
0.35905,1.3,-0.79983,47
0.38111,1.3799,-0.80432,22
0.40431,1.4639,-0.80749,26
0.43203,1.5642,-0.81511,23
0.46539,1.685,-0.82743,28
0.51075,1.8492,-0.85415,19
0.54979,1.9906,-0.86258,24
0.59766,2.1639,-0.87661,24
0.65996,2.3894,-0.90225,24
0.71731,2.5971,-0.91041,19
0.77158,2.7936,-0.90435,27
0.86755,3.1411,-0.93441,30
0.91636,3.3178,-0.90107,25
1.0202,3.6936,-0.90794,29
0.36152,1.294,-0.79676,42
0.38567,1.3804,-0.8053,23
0.40866,1.4627,-0.80749,27
0.43812,1.5681,-0.81781,23
0.47038,1.6836,-0.82743,31
0.51279,1.8354,-0.84845,26
0.55321,1.98,-0.85872,32
0.6101,2.1836,-0.88534,25
0.66553,2.382,-0.9002,27
0.72705,2.6023,-0.91297,19
0.77165,2.7619,-0.89482,23
0.86652,3.1015,-0.92339,33
0.93662,3.3523,-0.9112,25
1.0269,3.6756,-0.90425,31
0.36631,1.298,-0.79983,42
0.38502,1.3643,-0.79648,24
0.40961,1.4514,-0.80186,27
0.44076,1.5618,-0.81511,23
0.46988,1.665,-0.81887,35
0.51858,1.8375,-0.85008,28
0.56791,2.0123,-0.87337,27
0.61379,2.1749,-0.88243,24
0.6687,2.3694,-0.89609,24
0.73541,2.6058,-0.91489,24
0.77991,2.7635,-0.89601,33
0.87255,3.0918,-0.92118,28
0.95275,3.3759,-0.91829,28
1.0381,3.6785,-0.90564,34
0.3678,1.2886,-0.79472,40
0.39194,1.3732,-0.80236,23
0.41439,1.4519,-0.8028,26
0.44343,1.5536,-0.81152,23
0.47581,1.667,-0.82058,33
0.52002,1.8219,-0.84357,28
0.58351,2.0444,-0.88801,27
0.62177,2.1784,-0.88461,24
0.67315,2.3584,-0.89267,21
0.74262,2.6018,-0.91425,21
0.79125,2.7722,-0.89958,29
0.88594,3.104,-0.92559,28
0.9617,3.3694,-0.91728,23
1.0464,3.666,-0.90333,29
0.3728,1.2907,-0.79676,36
0.39287,1.3602,-0.7955,21
0.41993,1.4539,-0.80467,24
0.45129,1.5625,-0.81691,22
0.48405,1.6759,-0.82571,28
0.51966,1.7992,-0.83381,28
0.58941,2.0407,-0.88724,27
0.62913,2.1782,-0.88534,24
0.6769,2.3436,-0.88788,18
0.75342,2.6086,-0.91746,24
0.79625,2.7569,-0.89541,35
0.89729,3.1067,-0.92724,26
0.95886,3.3199,-0.90461,23
1.0438,3.6141,-0.89134,21
0.3781,1.2964,-0.80085,36
0.39398,1.3508,-0.7906,20
0.42473,1.4562,-0.80655,24
0.45588,1.563,-0.81781,23
0.49148,1.6851,-0.83085,28
0.52539,1.8014,-0.83544,26
0.5839,2.002,-0.87106,18
0.6317,2.1659,-0.88098,26
0.68672,2.3545,-0.89267,17
0.76236,2.6139,-0.92002,27
0.80507,2.7603,-0.8972,33
0.89519,3.0693,-0.91677,33
0.96917,3.3229,-0.90613,28
1.0538,3.6132,-0.8918,24
0.3812,1.2919,-0.79881,42
0.39527,1.3395,-0.78472,19
0.4298,1.4566,-0.80749,24
0.46129,1.5633,-0.8187,22
0.49677,1.6835,-0.83085,30
0.53622,1.8172,-0.84357,25
0.59332,2.0108,-0.87568,27
0.63428,2.1496,-0.87516,26
0.69464,2.3541,-0.89336,21
0.77433,2.6242,-0.9245,24
0.81644,2.7669,-0.90018,27
0.90102,3.0535,-0.91291,33
0.98344,3.3328,-0.90968,29
1.079,3.6566,-0.90333,24
0.38382,1.2875,-0.79676,40
0.40598,1.3618,-0.79844,21
0.43538,1.4605,-0.81031,23
0.46514,1.5603,-0.81781,21
0.49837,1.6717,-0.82571,31
0.53973,1.8105,-0.84113,28
0.59419,1.9932,-0.86874,27
0.64401,2.1603,-0.88025,25
0.71249,2.39,-0.90772,17
0.7784,2.6111,-0.92066,27
0.81925,2.7481,-0.89482,23
0.89966,3.0178,-0.90299,38
0.99661,3.3431,-0.91322,25
1.0847,3.6386,-0.89964,22
0.3899,1.2947,-0.80187,38
0.41179,1.3674,-0.80236,22
0.44302,1.4711,-0.81688,26
0.47156,1.5658,-0.8214,19
0.50251,1.6686,-0.82486,23
0.5432,1.8037,-0.83869,26
0.59496,1.9756,-0.86181,21
0.6538,2.171,-0.88534,30
0.7197,2.3898,-0.90841,18
0.78296,2.5998,-0.91746,21
0.82582,2.7422,-0.89362,29
0.90975,3.0208,-0.90464,36
1.0071,3.344,-0.91424,25
1.0848,3.602,-0.89134,29
0.39151,1.287,-0.79778,40
0.41155,1.3529,-0.79452,20
0.4425,1.4546,-0.80843,29
0.47541,1.5628,-0.8205,18
0.50717,1.6672,-0.82486,26
0.5493,1.8057,-0.84032,26
0.59833,1.9669,-0.85872,19
0.65986,2.1691,-0.88534,33
0.72364,2.3788,-0.90499,19
0.78856,2.5922,-0.91553,22
0.83625,2.749,-0.8966,29
0.90251,2.9668,-0.88921,41
1.013,3.33,-0.9112,25
1.0818,3.5562,-0.88074,36
0.39684,1.2908,-0.80085,36
0.4171,1.3566,-0.79746,21
0.44059,1.433,-0.79716,21
0.479,1.558,-0.8187,19
0.50149,1.6311,-0.80775,26
0.55734,1.8128,-0.84439,26
0.60525,1.9686,-0.86026,19
0.66629,2.1672,-0.88534,33
0.72793,2.3677,-0.90157,17
0.79514,2.5862,-0.91425,21
0.83823,2.7264,-0.89005,28
0.92205,2.999,-0.89968,26
1.0195,3.3159,-0.90816,25
1.0906,3.5474,-0.87935,31
0.3971,1.2781,-0.7937,36
0.42164,1.3571,-0.79844,19
0.44484,1.4317,-0.79716,20
0.48096,1.548,-0.81422,23
0.51276,1.6504,-0.81801,26
0.56488,1.8181,-0.84764,25
0.61163,1.9686,-0.86103,19
0.67106,2.1598,-0.88316,33
0.73663,2.3709,-0.90362,18
0.79831,2.5694,-0.90913,22
0.85085,2.7385,-0.89482,33
0.93151,2.9981,-0.90023,28
1.0339,3.3277,-0.91221,25
1.1266,3.6259,-0.89964,22
0.39831,1.2687,-0.7886,40
0.42149,1.3425,-0.7906,21
0.45067,1.4355,-0.79998,22
0.47592,1.5159,-0.79806,23
0.51658,1.6454,-0.8163,22
0.57356,1.8269,-0.85252,28
0.61747,1.9667,-0.86103,20
0.67802,2.1596,-0.88389,35
0.73578,2.3436,-0.89404,18
0.80763,2.5724,-0.91105,21
0.85668,2.7287,-0.89243,28
0.93925,2.9917,-0.89913,33
1.0368,3.3024,-0.90613,28
1.1192,3.565,-0.88535,21
0.4052,1.2773,-0.79472,36
0.42388,1.3363,-0.78766,21
0.46027,1.4509,-0.80937,24
0.48798,1.5383,-0.81063,21
0.52801,1.6645,-0.82657,26
0.57787,1.8217,-0.85089,30
0.62107,1.9579,-0.85795,20
0.68725,2.1665,-0.88752,30
0.75012,2.3647,-0.90293,18
0.81583,2.5718,-0.91169,21
0.859,2.7079,-0.88648,21
0.9551,3.0108,-0.90574,28
1.0449,3.2938,-0.90461,25
1.1281,3.5561,-0.88396,20
0.41086,1.2828,-0.79881,31
0.43772,1.3666,-0.80628,19
0.4654,1.453,-0.81125,26
0.49664,1.5506,-0.81781,20
0.53432,1.6682,-0.82914,26
0.58184,1.8166,-0.84927,28
0.62429,1.9491,-0.85487,21
0.69216,2.161,-0.88607,30
0.76016,2.3733,-0.90704,18
0.82243,2.5677,-0.91105,28
0.87297,2.7255,-0.89303,23
0.95764,2.9899,-0.90023,33
1.0558,3.2964,-0.90613,29
1.1439,3.5714,-0.88858,24
0.41308,1.2766,-0.79574,28
0.44285,1.3686,-0.80823,20
0.46536,1.4382,-0.80374,21
0.49848,1.5406,-0.81332,21
0.53592,1.6563,-0.824,26
0.58273,1.8009,-0.84276,26
0.63632,1.9666,-0.86335,19
0.69111,2.1359,-0.87661,30
0.76488,2.3639,-0.9043,19
0.82772,2.5581,-0.90849,28
0.90045,2.7829,-0.91269,27
0.97538,3.0144,-0.9085,26
1.0602,3.2767,-0.90158,29
1.1593,3.5828,-0.89226,27
0.41481,1.2706,-0.79268,31
0.44751,1.3708,-0.81019,22
0.47021,1.4403,-0.80561,22
0.50362,1.5427,-0.81511,19
0.54138,1.6583,-0.82571,19
0.59198,1.8133,-0.84927,19
0.6386,1.9561,-0.85949,19
0.70248,2.1518,-0.88389,28
0.76173,2.3333,-0.89336,27
0.83676,2.5631,-0.91105,28
0.88936,2.7242,-0.89422,27
0.97492,2.9863,-0.90078,28
1.073,3.2868,-0.90512,28
1.1705,3.5853,-0.89365,27
0.42258,1.2808,-0.79983,36
0.45236,1.371,-0.81117,23
0.47916,1.4523,-0.81312,23
0.51463,1.5597,-0.82499,17
0.55452,1.6806,-0.83769,20
0.59595,1.8062,-0.84683,25
0.64648,1.9594,-0.86181,21
0.70398,2.1336,-0.87734,25
0.76906,2.3309,-0.89336,24
0.84956,2.5749,-0.91617,24
0.87638,2.6561,-0.87277,30
0.97345,2.9504,-0.89086,36
1.0894,3.3018,-0.91019,28
1.1805,3.578,-0.89273,27
0.42257,1.2681,-0.79268,42
0.45588,1.368,-0.81019,24
0.48626,1.4592,-0.81782,27
0.52377,1.5718,-0.83217,17
0.56007,1.6807,-0.83855,21
0.60073,1.8027,-0.84601,26
0.65637,1.9697,-0.8672,29
0.70383,2.1121,-0.86934,26
0.77954,2.3393,-0.89746,19
0.85181,2.5562,-0.91041,24
0.91263,2.7387,-0.90077,25
0.98463,2.9547,-0.89307,33
1.0949,3.2857,-0.90664,25
1.193,3.58,-0.89411,22
0.43027,1.28,-0.80085,47
0.45668,1.3586,-0.8053,23
0.48839,1.4529,-0.815,26
0.5239,1.5585,-0.82589,20
0.56677,1.6861,-0.84197,22
0.60836,1.8098,-0.85008,25
0.65623,1.9522,-0.86026,29
0.70283,2.0908,-0.86133,24
0.78386,2.3319,-0.89541,21
0.85487,2.5431,-0.90657,19
0.90884,2.7037,-0.89005,21
1.0144,3.0178,-0.91291,28
1.1041,3.2846,-0.90715,25
1.1968,3.5602,-0.88996,24
0.4313,1.2706,-0.79574,45
0.46407,1.3671,-0.81117,22
0.49327,1.4531,-0.81594,26
0.52048,1.5333,-0.81332,21
0.57061,1.681,-0.84026,30
0.60609,1.7855,-0.8395,28
0.66617,1.9625,-0.86566,32
0.72041,2.1223,-0.87516,23
0.79138,2.3313,-0.89609,17
0.86363,2.5442,-0.90785,19
0.91747,2.7028,-0.89065,20
1.0153,2.9911,-0.90574,26
1.1014,3.2447,-0.89702,28
1.2123,3.5714,-0.89365,24
0.43485,1.2694,-0.79574,40
0.46789,1.3658,-0.81117,20
0.49733,1.4517,-0.81594,27
0.51723,1.5098,-0.80165,18
0.57296,1.6725,-0.83684,31
0.60397,1.7631,-0.82974,26
0.67464,1.9693,-0.86951,29
0.73659,2.1502,-0.88752,28
0.79789,2.3291,-0.89609,17
0.87073,2.5418,-0.90785,19
0.92007,2.6858,-0.88588,21
1.0274,2.9991,-0.90905,26
1.14,3.3276,-0.92082,28
1.221,3.5643,-0.89273,29
0.43996,1.2712,-0.79778,33
0.46989,1.3577,-0.80725,21
0.49842,1.4402,-0.81031,26
0.53074,1.5335,-0.81511,18
0.57939,1.6741,-0.83855,28
0.61847,1.787,-0.84194,26
0.67479,1.9498,-0.86181,27
0.73725,2.1303,-0.88025,25
0.80213,2.3177,-0.89267,19
0.87747,2.5354,-0.90657,22
0.92913,2.6847,-0.88648,23
1.0324,2.9832,-0.90519,26
1.1333,3.2747,-0.90715,28
1.2513,3.6157,-0.90656,27
0.44351,1.27,-0.79778,27
0.47483,1.3597,-0.80921,22
0.50069,1.4338,-0.80749,22
0.53914,1.5439,-0.8214,20
0.58407,1.6725,-0.83855,30
0.61924,1.7732,-0.83625,28
0.67415,1.9305,-0.8541,24
0.73399,2.1018,-0.86934,25
0.80736,2.3119,-0.8913,19
0.8808,2.5222,-0.90273,21
0.93158,2.6676,-0.88171,25
1.0477,3.0002,-0.91126,33
1.1399,3.2642,-0.90512,21
1.2537,3.5901,-0.90103,24
0.4515,1.28,-0.80493,36
0.47388,1.3434,-0.8004,22
0.51165,1.4505,-0.81782,27
0.54042,1.5321,-0.81601,22
0.59293,1.6809,-0.84368,31
0.62542,1.773,-0.83706,25
0.68021,1.9283,-0.8541,24
0.74121,2.1013,-0.87006,24
0.81524,2.3111,-0.89199,19
0.88746,2.5159,-0.90145,22
0.91964,2.6071,-0.86265,28
1.0476,2.9697,-0.90299,33
1.1592,3.2861,-0.91221,19
1.2598,3.5715,-0.89734,27
0.45507,1.2787,-0.80493,40
0.48114,1.3519,-0.80628,22
0.51452,1.4457,-0.81594,27
0.5435,1.5272,-0.81422,23
0.59701,1.6775,-0.84283,28
0.63588,1.7867,-0.84439,23
0.68992,1.9386,-0.85949,24
0.74145,2.0834,-0.86352,26
0.81665,2.2947,-0.88652,17
0.89067,2.5027,-0.89761,19
0.94036,2.6423,-0.87516,28
1.0597,2.9777,-0.9063,36
1.1573,3.2519,-0.9036,28
1.2685,3.5643,-0.89641,29
0.46097,1.2839,-0.80901,33
0.47902,1.3342,-0.79648,24
0.51676,1.4393,-0.81312,27
0.55199,1.5374,-0.8205,20
0.60414,1.6827,-0.84625,26
0.63531,1.7695,-0.83706,23
0.68972,1.921,-0.85256,29
0.74852,2.0848,-0.86497,25
0.82623,2.3013,-0.88994,19
0.89702,2.4984,-0.89697,19
0.94773,2.6396,-0.87516,28
1.0771,3,-0.91401,33
1.1723,3.265,-0.90816,28
1.2797,3.5644,-0.89734,29
0.46302,1.2777,-0.80595,36
0.47407,1.3082,-0.78178,24
0.51802,1.4295,-0.80843,24
0.56447,1.5576,-0.83217,21
0.60297,1.6639,-0.83769,30
0.63744,1.759,-0.833,25
0.70045,1.9329,-0.85872,29
0.76042,2.0983,-0.87152,30
0.83434,2.3023,-0.8913,19
0.89539,2.4708,-0.888,17
0.95816,2.644,-0.87754,23
1.0834,2.9896,-0.91181,26
1.1965,3.3016,-0.9193,28
1.3009,3.5898,-0.90471,29
0.464,1.27,-0.80187,40
0.47869,1.3102,-0.78374,24
0.52661,1.4414,-0.81594,24
0.56854,1.5561,-0.83217,21
0.60484,1.6555,-0.83427,31
0.64393,1.7625,-0.83544,25
0.70994,1.9432,-0.86412,18
0.76783,2.1016,-0.8737,26
0.84165,2.3037,-0.89267,17
0.89795,2.4578,-0.88416,17
0.96901,2.6522,-0.88111,23
1.0873,2.9759,-0.9085,24
1.2064,3.302,-0.92032,25
1.305,3.5718,-0.90103,31
0.46739,1.2669,-0.80085,42
0.49245,1.3349,-0.79942,24
0.53114,1.4397,-0.81594,26
0.56786,1.5393,-0.82409,21
0.60941,1.6519,-0.83342,23
0.65326,1.7707,-0.84032,25
0.71796,1.9461,-0.86643,21
0.76927,2.0852,-0.86788,23
0.85474,2.3169,-0.89883,21
0.90698,2.4585,-0.88544,17
0.95884,2.599,-0.86443,23
1.1066,2.9995,-0.91677,30
1.1994,3.251,-0.90715,25
1.3162,3.5677,-0.90103,29
0.47475,1.2752,-0.80697,40
0.50128,1.3465,-0.80725,21
0.53418,1.4348,-0.81406,26
0.56993,1.5309,-0.8205,21
0.61431,1.6501,-0.83342,24
0.65723,1.7654,-0.83869,25
0.72437,1.9457,-0.8672,27
0.77025,2.0689,-0.86206,25
0.8603,2.3108,-0.89746,22
0.92088,2.4735,-0.89185,18
0.9772,2.6248,-0.87396,25
1.1175,3.0017,-0.91842,28
1.205,3.2366,-0.90411,28
1.3356,3.5875,-0.90702,29
0.4805,1.2804,-0.81105,38
0.50542,1.3468,-0.80823,20
0.53731,1.4318,-0.81312,21
0.57457,1.531,-0.8214,22
0.61863,1.6485,-0.83342,28
0.66506,1.7722,-0.84276,26
0.72622,1.9352,-0.86335,32
0.78155,2.0826,-0.86861,28
0.86899,2.3156,-0.9002,22
0.93401,2.4889,-0.89825,24
0.97334,2.5936,-0.86443,30
1.1199,2.9843,-0.91401,33
1.2046,3.2099,-0.89752,29
1.3416,3.5748,-0.90471,27
0.48651,1.2855,-0.81513,36
0.51411,1.3584,-0.81607,18
0.54568,1.4418,-0.8197,24
0.58327,1.5411,-0.82768,20
0.62323,1.6467,-0.83342,30
0.66677,1.7618,-0.83869,30
0.73097,1.9314,-0.86258,27
0.78011,2.0612,-0.86061,23
0.86747,2.2921,-0.89199,22
0.92553,2.4455,-0.88352,24
0.98666,2.607,-0.86979,23
1.1167,2.9506,-0.90464,28
1.2033,3.1794,-0.88993,28
1.3488,3.5638,-0.90287,27
0.48748,1.2759,-0.81003,40
0.52211,1.3666,-0.82195,19
0.55525,1.4533,-0.82721,26
0.59129,1.5476,-0.83217,18
0.62969,1.6481,-0.83513,30
0.67426,1.7648,-0.84113,26
0.73703,1.9291,-0.86258,27
0.7939,2.0779,-0.86861,23
0.87399,2.2876,-0.8913,21
0.94471,2.4727,-0.89441,22
0.99075,2.5932,-0.86622,19
1.1212,2.9345,-0.90078,33
1.2361,3.2352,-0.90664,29
1.3607,3.5614,-0.90333,27
0.49166,1.2762,-0.81105,33
0.52718,1.3683,-0.82391,22
0.55931,1.4517,-0.82721,26
0.5924,1.5376,-0.82768,19
0.63754,1.6548,-0.8394,28
0.68576,1.78,-0.84927,21
0.74507,1.9339,-0.86566,27
0.80707,2.0948,-0.87661,26
0.88105,2.2869,-0.89199,21
0.94207,2.4452,-0.88544,28
0.9925,2.5761,-0.86145,20
1.1404,2.9601,-0.9096,30
1.2409,3.2209,-0.9036,29
1.3706,3.5575,-0.90333,27
0.48921,1.2587,-0.80085,36
0.52618,1.3538,-0.81607,20
0.56489,1.4534,-0.82909,26
0.59049,1.5192,-0.8187,21
0.64572,1.6613,-0.84368,26
0.68905,1.7728,-0.84683,28
0.75281,1.9369,-0.86797,27
0.80788,2.0785,-0.87079,25
0.8892,2.2877,-0.89336,22
0.96305,2.4778,-0.89825,18
1.0091,2.5963,-0.8692,25
1.1186,2.8778,-0.88535,38
1.2449,3.2028,-0.89955,21
1.3776,3.5444,-0.90103,27
0.4942,1.2604,-0.80289,33
0.52829,1.3473,-0.81313,18
0.56791,1.4484,-0.82721,26
0.59695,1.5225,-0.8214,19
0.64999,1.6577,-0.84283,30
0.70097,1.7878,-0.85496,23
0.75586,1.9277,-0.86489,27
0.82356,2.1004,-0.88098,26
0.89804,2.2903,-0.89541,24
0.97593,2.489,-0.90337,17
1.0196,2.6004,-0.87158,25
1.1432,2.9157,-0.89803,36
1.2678,3.2333,-0.90917,23
1.3746,3.5059,-0.89226,27
0.50256,1.2719,-0.81105,40
0.53053,1.3427,-0.81117,20
0.56846,1.4387,-0.82251,24
0.59831,1.5142,-0.81781,20
0.653,1.6527,-0.84112,31
0.69961,1.7706,-0.84764,25
0.76565,1.9378,-0.87029,32
0.82016,2.0757,-0.87152,28
0.89851,2.274,-0.88994,24
0.97409,2.4653,-0.89569,19
1.0517,2.6617,-0.89303,28
1.1699,2.9609,-0.91291,33
1.2684,3.2102,-0.9036,28
1.3831,3.5004,-0.8918,22
0.50655,1.2703,-0.81105,42
0.53216,1.3346,-0.80725,20
0.57363,1.4385,-0.82345,23
0.60836,1.5256,-0.82499,19
0.65752,1.6489,-0.84026,31
0.69434,1.7413,-0.83462,25
0.76969,1.9302,-0.86797,24
0.82254,2.0627,-0.86715,26
0.89103,2.2345,-0.87557,24
0.9713,2.4358,-0.88608,22
1.0657,2.6725,-0.89779,27
1.1621,2.9144,-0.89968,33
1.2835,3.2188,-0.90715,28
1.3919,3.4907,-0.89042,24
0.51009,1.2689,-0.81105,36
0.53914,1.3412,-0.81215,19
0.57698,1.4353,-0.82251,27
0.61328,1.5256,-0.82589,21
0.65942,1.6404,-0.83684,28
0.7067,1.758,-0.84357,21
0.78058,1.9418,-0.87414,24
0.82899,2.0622,-0.86788,24
0.89656,2.2303,-0.87489,22
0.98093,2.4401,-0.88864,24
1.0689,2.6589,-0.89422,33
1.1782,2.9308,-0.90574,36
1.2947,3.2206,-0.90867,25
1.414,3.5175,-0.89826,27
0.51192,1.2626,-0.80799,38
0.5405,1.3331,-0.80823,19
0.56863,1.4025,-0.80467,24
0.6178,1.5238,-0.82589,20
0.667,1.6451,-0.84026,26
0.71534,1.7643,-0.84764,25
0.78356,1.9326,-0.87106,27
0.8323,2.0528,-0.86497,24
0.90741,2.2381,-0.87899,19
0.98816,2.4372,-0.88864,27
1.0717,2.6434,-0.89005,33
1.176,2.9005,-0.89748,33
1.2831,3.1647,-0.89398,23
1.4347,3.5385,-0.90471,34
0.51696,1.2643,-0.81003,40
0.53851,1.317,-0.79942,20
0.57881,1.4155,-0.81312,22
0.61826,1.512,-0.8205,20
0.67325,1.6465,-0.84197,30
0.71712,1.7537,-0.84357,21
0.7844,1.9183,-0.86566,27
0.82711,2.0227,-0.85333,25
0.91049,2.2267,-0.87557,22
0.99181,2.4255,-0.88544,24
1.0738,2.626,-0.88528,30
1.1984,2.9308,-0.90795,28
1.2932,3.1627,-0.89448,23
1.4393,3.5198,-0.90103,27
0.5159,1.2517,-0.80289,40
0.54086,1.3122,-0.79746,21
0.59151,1.4351,-0.82533,22
0.61908,1.502,-0.81601,22
0.67647,1.6412,-0.84026,26
0.72062,1.7484,-0.84194,26
0.79327,1.9246,-0.86951,32
0.83701,2.0307,-0.8577,24
0.91886,2.2293,-0.87762,24
0.99208,2.407,-0.87968,22
1.1095,2.6919,-0.90852,29
1.2154,2.9488,-0.91456,28
1.319,3.2002,-0.90613,28
1.4521,3.523,-0.90287,29
0.51719,1.2437,-0.79881,29
0.55234,1.3282,-0.80823,20
0.59533,1.4316,-0.82439,24
0.62379,1.5,-0.81601,20
0.68093,1.6374,-0.8394,26
0.72891,1.7528,-0.8452,26
0.80003,1.9238,-0.87029,27
0.84625,2.035,-0.86061,26
0.91287,2.1952,-0.86531,24
1.0062,2.4196,-0.88544,27
1.1092,2.6672,-0.90137,29
1.2114,2.913,-0.90464,30
1.3276,3.1925,-0.90512,25
1.4534,3.495,-0.89688,29
0.52089,1.244,-0.79983,27
0.56367,1.3462,-0.81999,20
0.59542,1.422,-0.8197,24
0.62677,1.4969,-0.81511,20
0.68632,1.6391,-0.84112,26
0.73672,1.7595,-0.84927,25
0.7976,1.9048,-0.86258,21
0.85194,2.0346,-0.86133,26
0.90952,2.1721,-0.8571,24
1.0048,2.3996,-0.87904,28
1.0921,2.6081,-0.8823,30
1.2074,2.8835,-0.89637,33
1.3294,3.1749,-0.90107,25
1.4642,3.4969,-0.89826,31
0.5248,1.2424,-0.79983,27
0.56518,1.338,-0.81607,20
0.60126,1.4234,-0.82158,26
0.62868,1.4883,-0.81152,24
0.68936,1.6319,-0.83855,31
0.74083,1.7538,-0.84764,25
0.79999,1.8938,-0.85872,19
0.85905,2.0337,-0.86206,28
0.92804,2.197,-0.86805,22
1.0012,2.3703,-0.86944,24
1.0824,2.5625,-0.86801,36
1.2269,2.9044,-0.90409,33
1.3326,3.1547,-0.89651,28
1.482,3.5084,-0.90241,24
0.535,1.2567,-0.81003,31
0.56618,1.33,-0.81215,19
0.60039,1.4103,-0.815,23
0.63354,1.4882,-0.81242,23
0.6932,1.6283,-0.83769,33
0.74787,1.7567,-0.85008,23
0.80672,1.895,-0.86026,22
0.86692,2.0364,-0.86424,26
0.93785,2.203,-0.87147,22
1.0079,2.3675,-0.86944,22
1.1247,2.642,-0.89601,27
1.2184,2.8621,-0.89196,36
1.3376,3.1421,-0.89398,28
1.4849,3.4881,-0.89826,27
0.53488,1.2456,-0.80391,36
0.56554,1.317,-0.8053,21
0.60133,1.4003,-0.81031,22
0.64244,1.496,-0.81781,20
0.70046,1.6311,-0.84026,30
0.74761,1.741,-0.84357,25
0.82213,1.9145,-0.87029,27
0.87699,2.0422,-0.86788,26
0.92474,2.1534,-0.853,27
1.0295,2.3974,-0.8816,28
1.1074,2.5788,-0.87575,30
1.2312,2.8671,-0.89472,33
1.3391,3.1183,-0.88841,25
1.4897,3.4691,-0.89457,22
0.53767,1.2425,-0.80289,36
0.56852,1.3138,-0.80432,21
0.60805,1.4051,-0.81406,21
0.6523,1.5074,-0.82499,19
0.7007,1.6192,-0.83513,30
0.74739,1.7271,-0.83788,23
0.82528,1.9071,-0.86797,27
0.86789,2.0056,-0.85333,30
0.93672,2.1646,-0.85847,22
1.0279,2.3754,-0.87456,28
1.1313,2.6143,-0.88886,36
1.2377,2.8601,-0.89362,26
1.3601,3.1429,-0.89651,23
1.5071,3.4828,-0.89918,27
0.5432,1.2457,-0.80595,38
0.57428,1.317,-0.80725,19
0.61197,1.4034,-0.81406,24
0.65507,1.5023,-0.82319,20
0.70377,1.6139,-0.83342,30
0.75367,1.7284,-0.8395,19
0.82322,1.8879,-0.86026,24
0.87795,2.0134,-0.8577,28
0.95704,2.1947,-0.87147,27
1.0398,2.3846,-0.87904,27
1.1409,2.6163,-0.89065,30
1.2626,2.8954,-0.90574,26
1.3789,3.1622,-0.90309,28
1.5161,3.4768,-0.89872,31
0.54434,1.2377,-0.80187,40
0.57982,1.3184,-0.80921,19
0.60855,1.3837,-0.80374,22
0.65763,1.4953,-0.8205,20
0.71321,1.6217,-0.83855,28
0.75984,1.7277,-0.84032,21
0.82544,1.8768,-0.85641,27
0.89552,2.0362,-0.86861,24
0.96317,2.19,-0.87078,24
1.0481,2.3831,-0.87968,28
1.1545,2.625,-0.89482,33
1.2717,2.8914,-0.90574,28
1.3896,3.1596,-0.9036,28
1.527,3.472,-0.89872,24
0.54736,1.2364,-0.80187,40
0.58233,1.3153,-0.80823,19
0.59978,1.3548,-0.78777,27
0.65839,1.4871,-0.81691,20
0.71863,1.6232,-0.84026,28
0.76406,1.7258,-0.84032,23
0.83525,1.8866,-0.86181,32
0.90201,2.0374,-0.87006,25
0.96852,2.1877,-0.87078,24
1.0585,2.3909,-0.88352,28
1.1593,2.6187,-0.89362,29
1.2717,2.8725,-0.90078,33
1.3989,3.1597,-0.90461,25
1.5315,3.4594,-0.89641,29
0.55335,1.2393,-0.80493,40
0.58717,1.3151,-0.80921,22
0.60115,1.3464,-0.78402,22
0.65796,1.4736,-0.81063,20
0.72668,1.6276,-0.84368,31
0.76202,1.7067,-0.83218,28
0.83816,1.8772,-0.85872,29
0.91372,2.0465,-0.87516,30
0.97615,2.1863,-0.87147,21
1.0629,2.3807,-0.88096,28
1.1504,2.5767,-0.88052,25
1.2792,2.865,-0.89968,33
1.4104,3.1589,-0.90563,25
1.5456,3.4617,-0.89826,27
0.55702,1.2377,-0.80493,45
0.58893,1.3086,-0.80628,23
0.62471,1.3881,-0.80937,22
0.66013,1.4668,-0.80793,20
0.73002,1.6221,-0.84197,37
0.76409,1.6978,-0.82893,23
0.84524,1.8781,-0.86026,29
0.91826,2.0404,-0.8737,28
0.98109,2.18,-0.8701,21
1.0537,2.3412,-0.86752,22
1.1651,2.5889,-0.88588,21
1.2869,2.8594,-0.89913,28
1.4031,3.1176,-0.89499,25
1.5518,3.4482,-0.89595,29
0.56523,1.2472,-0.81207,47
0.59451,1.3118,-0.80921,23
0.63418,1.3993,-0.81688,23
0.65732,1.4504,-0.79985,22
0.73202,1.6152,-0.8394,28
0.77079,1.7008,-0.83137,19
0.85016,1.8759,-0.86026,24
0.91206,2.0125,-0.86279,30
0.98525,2.174,-0.86873,22
1.0692,2.3592,-0.8752,17
1.1869,2.6189,-0.8972,27
1.292,2.8508,-0.89748,30
1.4008,3.091,-0.88841,21
1.5528,3.4264,-0.89134,27
0.56486,1.236,-0.80595,42
0.59573,1.3036,-0.8053,22
0.6371,1.3941,-0.815,20
0.66039,1.4451,-0.79806,20
0.72958,1.5965,-0.83085,26
0.77461,1.695,-0.82974,23
0.85758,1.8766,-0.86181,27
0.91993,2.013,-0.86424,25
1.0014,2.1914,-0.87694,21
1.075,2.3523,-0.87392,24
1.188,2.5995,-0.89184,25
1.3065,2.8589,-0.90133,28
1.4146,3.0954,-0.89094,29
1.5733,3.4427,-0.89688,24
0.5719,1.2423,-0.81105,40
0.60228,1.3083,-0.80921,22
0.62991,1.3683,-0.80092,16
0.66368,1.4416,-0.79716,17
0.73555,1.5977,-0.83256,26
0.79233,1.7211,-0.84357,21
0.87053,1.8909,-0.86951,27
0.93411,2.029,-0.87225,30
0.99184,2.1544,-0.86326,24
1.0942,2.3769,-0.88416,24
1.188,2.5806,-0.88648,28
1.2872,2.7959,-0.88259,33
1.4281,3.102,-0.89398,29
1.5764,3.4242,-0.89319,27
0.5732,1.236,-0.80799,42
0.60227,1.2987,-0.80432,21
0.63819,1.3761,-0.80655,20
0.65642,1.4154,-0.78369,18
0.74153,1.5989,-0.83427,24
0.79713,1.7188,-0.84357,26
0.87038,1.8768,-0.86412,29
0.93664,2.0197,-0.86934,28
1.001,2.1585,-0.86599,22
1.0985,2.3687,-0.88224,27
1.1623,2.5062,-0.86205,23
1.3079,2.8202,-0.89141,28
1.4367,3.098,-0.89398,28
1.5892,3.4268,-0.89503,31
0.57271,1.2248,-0.80187,45
0.60487,1.2936,-0.80236,21
0.64326,1.3757,-0.80749,24
0.66541,1.4231,-0.78908,19
0.74578,1.595,-0.83342,26
0.79556,1.7014,-0.83625,30
0.87392,1.869,-0.86181,21
0.94219,2.015,-0.86861,30
1.0078,2.1553,-0.86599,24
1.1035,2.36,-0.88032,24
1.1823,2.5285,-0.87099,28
1.3371,2.8596,-0.90519,26
1.4489,3.0987,-0.8955,25
1.5959,3.413,-0.89273,29
0.57707,1.2247,-0.80289,45
0.60722,1.2886,-0.8004,23
0.64809,1.3754,-0.80843,26
0.68867,1.4615,-0.81152,19
0.74281,1.5764,-0.82486,28
0.80372,1.7057,-0.8395,30
0.88104,1.8698,-0.86335,22
0.9569,2.0308,-0.87661,30
1.0086,2.1404,-0.86121,24
1.1049,2.3448,-0.87584,28
1.2223,2.5941,-0.89482,35
1.33,2.8226,-0.89472,33
1.4622,3.1032,-0.89803,28
1.6085,3.4135,-0.89411,31
0.5788,1.2201,-0.80085,45
0.61507,1.2965,-0.80628,22
0.65169,1.3737,-0.80843,27
0.69096,1.4565,-0.80973,22
0.75003,1.581,-0.82828,26
0.81132,1.7102,-0.84276,25
0.89226,1.8808,-0.86951,27
0.9686,2.0417,-0.88243,26
1.019,2.148,-0.86531,24
1.1077,2.335,-0.87328,27
1.2046,2.5391,-0.87694,25
1.3399,2.8243,-0.89637,30
1.4761,3.1116,-0.90158,25
1.6216,3.4181,-0.89641,29
0.58613,1.2261,-0.80595,42
0.62042,1.2978,-0.80823,22
0.65652,1.3733,-0.80937,27
0.70068,1.4657,-0.81601,22
0.7555,1.5804,-0.82914,23
0.82348,1.7226,-0.85008,23
0.89465,1.8715,-0.86643,27
0.96984,2.0287,-0.87807,28
1.0319,2.1585,-0.87078,22
1.1106,2.3232,-0.87008,32
1.1932,2.4959,-0.86324,25
1.3441,2.8117,-0.89362,33
1.4703,3.0757,-0.89246,28
1.6317,3.4133,-0.89641,27
0.58955,1.2245,-0.80595,40
0.62328,1.2945,-0.80725,22
0.65653,1.3636,-0.80467,24
0.7133,1.4815,-0.82589,20
0.76461,1.588,-0.83427,23
0.82195,1.7071,-0.84357,28
0.88867,1.8457,-0.85564,22
0.98277,2.0411,-0.88461,30
1.0477,2.1759,-0.87899,18
1.1088,2.303,-0.86368,27
1.2175,2.5287,-0.87575,25
1.3545,2.8131,-0.89527,33
1.4898,3.0943,-0.89904,23
1.6345,3.3947,-0.89273,29
0.59522,1.2274,-0.80901,38
0.62538,1.2896,-0.8053,23
0.67112,1.384,-0.81782,26
0.71587,1.4762,-0.82409,21
0.76194,1.5713,-0.82657,24
0.82432,1.6999,-0.84113,30
0.90751,1.8714,-0.86874,27
0.98522,2.0317,-0.8817,33
1.048,2.1612,-0.8742,21
1.1252,2.3203,-0.87136,18
1.2362,2.5493,-0.88409,23
1.3631,2.811,-0.89582,36
1.4858,3.064,-0.89145,28
1.6474,3.3971,-0.89457,31
0.59907,1.2256,-0.80901,40
0.63325,1.2955,-0.81019,21
0.66926,1.3691,-0.81031,24
0.72207,1.4772,-0.82589,20
0.7772,1.59,-0.83769,26
0.82805,1.694,-0.8395,26
0.90041,1.842,-0.85641,27
0.98505,2.0152,-0.87588,25
1.0548,2.1579,-0.8742,22
1.1483,2.3491,-0.88352,22
1.2241,2.5043,-0.86979,30
1.3466,2.7549,-0.87928,28
1.4937,3.0558,-0.89043,23
1.6563,3.3884,-0.89365,27
0.60119,1.2207,-0.80697,42
0.64557,1.3108,-0.82097,21
0.68034,1.3814,-0.81876,24
0.72724,1.4767,-0.82678,21
0.7867,1.5974,-0.84283,28
0.83146,1.6883,-0.83788,23
0.89772,1.8228,-0.8487,29
0.98691,2.0039,-0.87225,21
1.0628,2.1581,-0.87557,22
1.1486,2.3321,-0.8784,24
1.2273,2.4921,-0.86682,28
1.3777,2.7975,-0.89417,28
1.5062,3.0583,-0.89246,28
1.6629,3.3765,-0.8918,24
0.60744,1.2253,-0.81105,40
0.64977,1.3107,-0.82195,21
0.68866,1.3891,-0.82439,26
0.73746,1.4876,-0.83397,22
0.78767,1.5888,-0.8394,28
0.84075,1.6959,-0.84276,21
0.91397,1.8436,-0.85949,27
0.98801,1.993,-0.86861,20
1.0668,2.1519,-0.8742,24
1.142,2.3036,-0.8688,22
1.2661,2.5538,-0.88945,23
1.3782,2.7801,-0.88976,33
1.5237,3.0734,-0.89803,25
1.6709,3.3704,-0.89134,22
0.60646,1.2142,-0.80493,38
0.65989,1.3212,-0.82979,22
0.68568,1.3729,-0.81594,29
0.74107,1.4838,-0.83307,23
0.78511,1.5719,-0.8317,30
0.84578,1.6934,-0.84276,25
0.92355,1.8491,-0.86335,22
0.98893,1.98,-0.86424,22
1.0648,2.1319,-0.86736,24
1.1497,2.3019,-0.86944,22
1.2498,2.5023,-0.87277,25
1.3942,2.7915,-0.89472,33
1.5285,3.0603,-0.8955,23
1.6809,3.3654,-0.89134,27
0.61414,1.22,-0.81003,38
0.66325,1.3176,-0.82881,22
0.69634,1.3833,-0.82345,27
0.74251,1.475,-0.82948,22
0.79167,1.5727,-0.83342,28
0.84698,1.6826,-0.83869,25
0.92687,1.8413,-0.86103,27
0.99096,1.9686,-0.86061,24
1.0757,2.137,-0.87078,22
1.1595,2.3034,-0.87136,24
1.2482,2.4796,-0.86622,28
1.3848,2.751,-0.88314,30
1.5355,3.0503,-0.89398,25
1.6984,3.374,-0.89503,22
0.61266,1.2092,-0.80391,36
0.66434,1.3112,-0.82587,24
0.70235,1.3862,-0.82627,27
0.74395,1.4683,-0.82678,23
0.79579,1.5706,-0.83342,31
0.85469,1.6869,-0.84194,26
0.93419,1.8438,-0.86335,29
0.99863,1.971,-0.86279,26
1.0796,2.1308,-0.86942,22
1.1775,2.324,-0.88032,21
1.278,2.5223,-0.8823,25
1.3877,2.7388,-0.88039,36
1.5496,3.0583,-0.89752,25
1.7055,3.3661,-0.89411,27
0.6139,1.2028,-0.80085,38
0.66188,1.2968,-0.81803,24
0.70566,1.3825,-0.82533,30
0.75237,1.4741,-0.83127,24
0.7988,1.565,-0.8317,31
0.86052,1.686,-0.84276,25
0.92791,1.818,-0.85256,27
1.0053,1.9697,-0.86352,28
1.0868,2.1293,-0.8701,22
1.1732,2.2986,-0.872,27
1.2959,2.5389,-0.88945,23
1.4028,2.7484,-0.8848,30
1.5472,3.0313,-0.89094,25
1.7066,3.3437,-0.8895,27
0.62083,1.207,-0.80493,40
0.66356,1.29,-0.81509,24
0.70192,1.3646,-0.81594,27
0.74963,1.4574,-0.82319,20
0.80454,1.5641,-0.83256,31
0.85495,1.6621,-0.83218,25
0.93108,1.8101,-0.85024,27
1.0141,1.9715,-0.8657,26
1.0943,2.1275,-0.87078,22
1.183,2.2999,-0.87392,28
1.296,2.5195,-0.88409,28
1.4123,2.7456,-0.88535,30
1.554,3.0213,-0.88942,23
1.718,3.3401,-0.88996,29
0.62873,1.2145,-0.81105,38
0.66934,1.2929,-0.81803,23
0.70224,1.3565,-0.81219,27
0.74605,1.4411,-0.81511,21
0.8078,1.5604,-0.8317,28
0.86266,1.6664,-0.83544,19
0.93921,1.8143,-0.85333,22
1.0141,1.9589,-0.86133,26
1.0947,2.1146,-0.86668,24
1.1847,2.2884,-0.87072,27
1.2824,2.4771,-0.87039,28
1.3876,2.6805,-0.8655,30
1.5673,3.0275,-0.89246,29
1.7277,3.3373,-0.89042,27
0.6353,1.2188,-0.81513,31
0.66972,1.2849,-0.81411,20
0.71093,1.3639,-0.81782,27
0.7476,1.4343,-0.81242,19
0.81633,1.5662,-0.83598,26
0.86393,1.6575,-0.83218,21
0.93489,1.7936,-0.84485,22
1.0161,1.9494,-0.85842,28
1.0928,2.0966,-0.86052,24
1.1709,2.2464,-0.85599,21
1.2805,2.4566,-0.86443,30
1.4324,2.7482,-0.88865,28
1.5766,3.0248,-0.89296,28
1.7343,3.3273,-0.88904,27
0.63273,1.2047,-0.80697,33
0.67376,1.2828,-0.81411,20
0.71439,1.3601,-0.81688,24
0.75708,1.4414,-0.81781,21
0.81536,1.5524,-0.82999,31
0.86743,1.6515,-0.83056,25
0.94739,1.8037,-0.85101,27
1.0205,1.9429,-0.85697,25
1.1125,2.1181,-0.87078,22
1.1982,2.2813,-0.87072,22
1.3104,2.4948,-0.87933,20
1.4393,2.7403,-0.88755,36
1.5843,3.0164,-0.89195,28
1.742,3.3166,-0.88765,27
0.63186,1.1954,-0.80187,42
0.68037,1.2872,-0.81803,23
0.7163,1.3551,-0.815,22
0.7642,1.4458,-0.8214,21
0.8152,1.5423,-0.82571,30
0.87602,1.6573,-0.83462,25
0.95211,1.8013,-0.85101,29
1.0282,1.9452,-0.85915,28
1.1084,2.0969,-0.86326,28
1.2139,2.2966,-0.87776,28
1.3249,2.5066,-0.88469,23
1.4402,2.7246,-0.88369,33
1.5787,2.9866,-0.88435,25
1.7534,3.3172,-0.88904,29
0.63965,1.201,-0.80697,47
0.69015,1.2958,-0.82489,24
0.71889,1.3498,-0.81312,24
0.76621,1.4386,-0.8187,21
0.82684,1.5524,-0.83256,28
0.88208,1.6562,-0.83544,28
0.95776,1.7983,-0.85101,24
1.0299,1.9337,-0.85551,25
1.122,2.1067,-0.86873,22
1.222,2.2945,-0.8784,27
1.3202,2.4788,-0.87635,28
1.4614,2.7438,-0.89141,28
1.5962,2.997,-0.88891,25
1.7638,3.3117,-0.88904,24
0.64321,1.1991,-0.80697,40
0.69647,1.2984,-0.82783,24
0.73291,1.3663,-0.82439,24
0.77132,1.4379,-0.8196,21
0.82375,1.5357,-0.82486,28
0.89304,1.6648,-0.84113,26
0.97356,1.8149,-0.86026,27
1.0471,1.952,-0.86497,26
1.1256,2.0983,-0.86668,22
1.2127,2.2608,-0.86688,30
1.3095,2.4412,-0.86443,28
1.4731,2.7462,-0.89362,28
1.5932,2.9701,-0.88233,29
1.7801,3.3184,-0.89226,27
0.64819,1.2003,-0.80901,40
0.69926,1.2949,-0.82685,28
0.74343,1.3767,-0.8319,22
0.77024,1.4263,-0.81422,22
0.81086,1.5015,-0.80775,28
0.89682,1.6607,-0.84032,26
0.97863,1.8122,-0.86026,29
1.0525,1.9491,-0.86497,25
1.1413,2.1134,-0.8742,21
1.2181,2.2557,-0.86624,18
1.3281,2.4594,-0.87218,30
1.4772,2.7354,-0.89141,28
1.6043,2.9707,-0.88385,25
1.7792,3.2946,-0.88719,29
0.65093,1.1969,-0.80799,42
0.70477,1.2959,-0.82881,35
0.74836,1.376,-0.83284,22
0.77191,1.4193,-0.81152,23
0.82654,1.5198,-0.81887,26
0.90087,1.6564,-0.8395,26
0.98488,1.8109,-0.86103,32
1.0539,1.9378,-0.86133,25
1.1529,2.1199,-0.87831,21
1.2257,2.2537,-0.86688,21
1.3491,2.4806,-0.88111,25
1.4871,2.7343,-0.89251,30
1.6186,2.9762,-0.88689,29
1.7861,3.2842,-0.88581,27
0.65448,1.1949,-0.80799,42
0.70861,1.2938,-0.82881,30
0.7465,1.3629,-0.82627,24
0.78213,1.428,-0.81781,23
0.83886,1.5316,-0.82657,28
0.9049,1.6521,-0.83869,25
0.99202,1.8112,-0.86258,32
1.0695,1.9526,-0.86934,28
1.1574,2.1132,-0.87694,21
1.2406,2.2651,-0.87264,22
1.3509,2.4665,-0.87754,21
1.4934,2.7265,-0.89141,33
1.6274,2.9713,-0.88689,28
1.7912,3.2704,-0.8835,29
0.65677,1.1917,-0.80697,40
0.70273,1.2751,-0.81803,32
0.75433,1.3687,-0.83096,26
0.78327,1.4212,-0.81511,22
0.8385,1.5215,-0.82229,26
0.90393,1.6402,-0.83381,21
1.0012,1.8167,-0.86643,29
1.0665,1.9351,-0.86279,25
1.1539,2.0937,-0.8701,24
1.2474,2.2635,-0.87328,24
1.3574,2.463,-0.87754,28
1.4977,2.7176,-0.88976,28
1.6408,2.9772,-0.88993,25
1.7969,3.2605,-0.88212,31
0.65885,1.1866,-0.80493,38
0.69997,1.2607,-0.81019,23
0.75777,1.3648,-0.83003,24
0.7834,1.411,-0.81063,23
0.8582,1.5457,-0.83684,26
0.88957,1.6022,-0.81591,25
1.006,1.8119,-0.86566,32
1.078,1.9415,-0.86715,24
1.1513,2.0736,-0.86326,21
1.2518,2.2546,-0.87136,24
1.3735,2.4737,-0.8829,23
1.5044,2.7095,-0.88865,28
1.6492,2.9704,-0.88942,29
1.8062,3.2532,-0.88166,27
0.66467,1.1893,-0.80799,36
0.70774,1.2663,-0.81509,25
0.75813,1.3565,-0.82627,22
0.79082,1.415,-0.81422,22
0.86251,1.5433,-0.83684,24
0.91187,1.6316,-0.83218,25
1.0093,1.8059,-0.86412,29
1.0807,1.9336,-0.86497,30
1.1534,2.0638,-0.86052,19
1.2451,2.2279,-0.8624,24
1.3766,2.4632,-0.88052,28
1.5072,2.6969,-0.8859,30
1.6585,2.9675,-0.88993,25
1.8191,3.2549,-0.8835,29
0.66715,1.1859,-0.80697,38
0.71982,1.2796,-0.82489,28
0.76624,1.3621,-0.83096,22
0.79565,1.4144,-0.81511,21
0.85618,1.522,-0.82657,28
0.91283,1.6227,-0.82893,23
1.0134,1.8015,-0.86335,24
1.0705,1.903,-0.8526,30
1.1555,2.054,-0.85779,19
1.2727,2.2624,-0.87712,27
1.3863,2.4644,-0.8823,28
1.5157,2.6943,-0.88645,33
1.6544,2.9409,-0.88334,28
1.833,3.2583,-0.88581,31
0.67215,1.1871,-0.80901,38
0.72425,1.2791,-0.82587,27
0.7683,1.3569,-0.82909,23
0.8084,1.4277,-0.82409,20
0.86577,1.529,-0.8317,26
0.91916,1.6233,-0.83056,23
1.0121,1.7874,-0.85795,21
1.085,1.9162,-0.85988,33
1.1585,2.0459,-0.85573,22
1.2688,2.2407,-0.87008,21
1.3443,2.3741,-0.85133,39
1.5242,2.6918,-0.887,41
1.6483,2.911,-0.87574,32
1.8267,3.2261,-0.87843,29
0.67588,1.1849,-0.80901,36
0.72999,1.2798,-0.82783,27
0.76819,1.3468,-0.82439,24
0.81819,1.4344,-0.82948,20
0.86878,1.5231,-0.82999,26
0.92154,1.6156,-0.82812,25
1.0186,1.7858,-0.85872,29
1.0956,1.9209,-0.86352,35
1.1593,2.0325,-0.85163,24
1.273,2.2318,-0.86816,22
1.3508,2.3682,-0.85073,39
1.525,2.6736,-0.88259,36
1.6776,2.9411,-0.88638,25
1.8388,3.2237,-0.87935,27
0.68176,1.1875,-0.81207,33
0.73443,1.2793,-0.82881,28
0.77546,1.3508,-0.82815,24
0.81953,1.4275,-0.82678,23
0.87573,1.5254,-0.83256,28
0.92605,1.6131,-0.82812,23
1.0236,1.7829,-0.85872,29
1.0982,1.913,-0.86133,33
1.165,2.0292,-0.85163,22
1.2839,2.2364,-0.87136,24
1.384,2.4108,-0.86741,28
1.5229,2.6527,-0.87708,33
1.6684,2.9062,-0.87726,28
1.8507,3.2236,-0.88074,31
0.68462,1.1839,-0.81105,33
0.73146,1.2649,-0.82097,30
0.78854,1.3636,-0.83754,26
0.8249,1.4265,-0.82768,21
0.88233,1.5258,-0.83427,28
0.94117,1.6275,-0.83706,21
1.031,1.7829,-0.86026,27
1.1033,1.9079,-0.86061,33
1.1713,2.0255,-0.85163,24
1.2796,2.2127,-0.86368,28
1.383,2.3915,-0.86205,28
1.5351,2.6545,-0.87928,36
1.694,2.9294,-0.88587,25
1.8588,3.2144,-0.87981,29
0.6836,1.1745,-0.80595,36
0.73148,1.2568,-0.81705,27
0.78968,1.3568,-0.83472,27
0.82708,1.4211,-0.82589,21
0.89022,1.5296,-0.83769,24
0.93653,1.6091,-0.82893,25
1.0341,1.7768,-0.85872,27
1.1058,1.9,-0.85842,33
1.1741,2.0174,-0.84958,27
1.2571,2.16,-0.84447,21
1.4069,2.4174,-0.87277,28
1.5579,2.6768,-0.8881,30
1.7012,2.923,-0.88537,28
1.8747,3.221,-0.88304,24
0.68079,1.1622,-0.79881,29
0.73499,1.2548,-0.81705,27
0.7899,1.3485,-0.83096,29
0.83376,1.4234,-0.82858,22
0.89632,1.5302,-0.8394,26
0.93547,1.597,-0.82405,19
1.0335,1.7644,-0.8541,22
1.1168,1.9065,-0.86279,26
1.1855,2.0238,-0.85368,30
1.2804,2.1859,-0.85599,24
1.4214,2.4266,-0.87754,28
1.5567,2.6575,-0.88314,41
1.7084,2.9166,-0.88486,28
1.8827,3.2141,-0.88258,29
0.68356,1.1586,-0.79778,27
0.74247,1.2585,-0.82097,25
0.79682,1.3506,-0.83378,26
0.83913,1.4223,-0.82948,23
0.90388,1.532,-0.84197,24
0.93492,1.5846,-0.81917,18
1.04,1.7627,-0.85487,29
1.1227,1.903,-0.86279,30
1.1899,2.0169,-0.85231,27
1.2979,2.1998,-0.86304,22
1.4096,2.3892,-0.86562,33
1.5611,2.646,-0.88094,38
